# .PCD v0.7 - Point Cloud Data file format
VERSION 0.7
FIELDS x y z
SIZE 4 4 4
TYPE F F F
COUNT 1 1 1
WIDTH 1824
HEIGHT 1
VIEWPOINT 0 0 0 1 0 0 0
POINTS 1824
DATA ascii
1.0625 2.1875 0.0625
1.0875 2.1875 0.0625
1.0625 2.1875 0.087499999
1.0875 2.1875 0.087499999
1.1125 2.1875 0.0625
1.1375 2.1875 0.0625
1.1125 2.1875 0.087499999
1.1375 2.1875 0.087499999
1.1625 2.1875 0.0625
1.1625 2.1624999 0.087499999
1.1625 2.1875 0.087499999
1.0125 2.1875 0.1125
1.0375 2.1875 0.1125
1.0625 2.1875 0.1125
1.0875 2.1875 0.1125
1.1125 2.1875 0.1125
1.1375 2.1875 0.1125
1.1625 2.1875 0.1125
1.1875 2.1875 0.1125
0.83749998 2.2125001 0.0625
0.8125 2.2125001 0.087499999
0.83749998 2.2125001 0.087499999
0.8125 2.2375 0.087499999
0.83749998 2.2375 0.087499999
0.86250001 2.2125001 0.0625
0.88749999 2.2125001 0.0625
0.86250001 2.2375 0.0625
0.86250001 2.2125001 0.087499999
0.88749999 2.2125001 0.087499999
0.86250001 2.2375 0.087499999
0.88749999 2.2375 0.087499999
0.8125 2.2874999 0.0625
0.8125 2.2625 0.087499999
0.83749998 2.2625 0.087499999
0.8125 2.2874999 0.087499999
0.91250002 2.2125001 0.0625
0.9375 2.2125001 0.0625
0.91250002 2.2125001 0.087499999
0.9375 2.2125001 0.087499999
0.91250002 2.2375 0.087499999
0.9375 2.2375 0.087499999
0.96249998 2.2125001 0.0625
0.96249998 2.2125001 0.087499999
0.98750001 2.2125001 0.087499999
0.96249998 2.2375 0.087499999
0.98750001 2.2375 0.087499999
0.86250001 2.3875 0.087499999
0.91250002 2.3125 0.0625
0.96249998 2.3375001 0.0625
0.9375 2.3875 0.0625
0.9375 2.3625 0.087499999
0.91250002 2.3875 0.087499999
0.9375 2.3875 0.087499999
0.96249998 2.3875 0.0625
0.82499999 2.2249999 0.125
0.86250001 2.2125001 0.1125
0.88749999 2.2125001 0.1125
0.86250001 2.2375 0.1125
0.88749999 2.2375 0.1125
0.86250001 2.2375 0.1375
0.82499999 2.2750001 0.125
0.86250001 2.2625 0.1125
0.88749999 2.2625 0.1125
0.86250001 2.2874999 0.1125
0.86250001 2.2625 0.1375
0.86250001 2.2874999 0.1375
0.88749999 2.2874999 0.1375
0.83749998 2.2125001 0.16249999
0.8125 2.2375 0.16249999
0.83749998 2.2375 0.16249999
0.83749998 2.2125001 0.1875
0.8125 2.2375 0.1875
0.83749998 2.2375 0.1875
0.86250001 2.2125001 0.16249999
0.86250001 2.2375 0.16249999
0.86250001 2.2125001 0.1875
0.86250001 2.2375 0.1875
0.8125 2.2625 0.16249999
0.83749998 2.2625 0.16249999
0.8125 2.2874999 0.16249999
0.83749998 2.2874999 0.16249999
0.83749998 2.2625 0.1875
0.83749998 2.2874999 0.1875
0.86250001 2.2625 0.16249999
0.86250001 2.2874999 0.16249999
0.88749999 2.2874999 0.16249999
0.86250001 2.2625 0.1875
0.86250001 2.2874999 0.1875
0.88749999 2.2874999 0.1875
0.91250002 2.2125001 0.1125
0.9375 2.2125001 0.1125
0.91250002 2.2375 0.1125
0.9375 2.2375 0.1125
0.91250002 2.2375 0.1375
0.9375 2.2375 0.1375
0.96249998 2.2125001 0.1125
0.98750001 2.2125001 0.1125
0.96249998 2.2375 0.1125
0.98750001 2.2375 0.1125
0.96249998 2.2375 0.1375
0.98750001 2.2375 0.1375
0.91250002 2.2625 0.1375
0.9375 2.2625 0.1375
0.91250002 2.2874999 0.1375
0.9375 2.2874999 0.1375
0.96249998 2.2625 0.1375
0.98750001 2.2625 0.1375
0.98750001 2.2874999 0.1375
0.91250002 2.2625 0.16249999
0.9375 2.2625 0.16249999
0.91250002 2.2874999 0.16249999
0.9375 2.2874999 0.16249999
0.91250002 2.2874999 0.1875
0.9375 2.2874999 0.1875
0.98750001 2.2625 0.16249999
0.96249998 2.2874999 0.16249999
0.98750001 2.2874999 0.16249999
0.83749998 2.3125 0.1125
0.83749998 2.3125 0.1375
0.86250001 2.3125 0.1375
0.86250001 2.3375001 0.1375
0.83749998 2.3125 0.16249999
0.8125 2.3125 0.1875
0.83749998 2.3125 0.1875
0.8125 2.3375001 0.1875
0.83749998 2.3375001 0.1875
0.875 2.325 0.175
0.83749998 2.3625 0.16249999
0.83749998 2.3625 0.1875
0.875 2.375 0.175
0.96249998 2.3125 0.1375
0.96249998 2.3625 0.1375
0.91250002 2.3125 0.16249999
0.9375 2.3125 0.16249999
0.9375 2.3375001 0.16249999
0.91250002 2.3125 0.1875
0.9375 2.3125 0.1875
0.91250002 2.3375001 0.1875
0.9375 2.3375001 0.1875
0.97500002 2.325 0.175
0.91250002 2.3625 0.16249999
0.9375 2.3625 0.16249999
0.9375 2.3875 0.16249999
0.91250002 2.3625 0.1875
0.9375 2.3625 0.1875
0.91250002 2.3875 0.1875
0.9375 2.3875 0.1875
0.96249998 2.3625 0.16249999
0.98750001 2.3625 0.16249999
0.96249998 2.3875 0.16249999
0.96249998 2.3875 0.1875
0.98750001 2.3875 0.1875
1.0125 2.2125001 0.0625
1.0375 2.2125001 0.0625
1.0125 2.2375 0.0625
1.0125 2.2125001 0.087499999
1.0375 2.2125001 0.087499999
1.0125 2.2375 0.087499999
1.0375 2.2375 0.087499999
1.0625 2.2125001 0.0625
1.0875 2.2125001 0.0625
1.0875 2.2375 0.0625
1.0625 2.2125001 0.087499999
1.0875 2.2125001 0.087499999
1.0625 2.2375 0.087499999
1.0875 2.2375 0.087499999
1.0125 2.2625 0.087499999
1.0875 2.2625 0.0625
1.1375 2.2125001 0.0625
1.1125 2.2125001 0.087499999
1.1375 2.2125001 0.087499999
1.1125 2.2375 0.087499999
1.1375 2.2375 0.087499999
1.1875 2.2125001 0.0625
1.1625 2.2125001 0.087499999
1.1875 2.2125001 0.087499999
1.1625 2.2375 0.087499999
1.1875 2.2375 0.087499999
1.1875 2.2625 0.087499999
1.0375 2.3125 0.0625
1.0375 2.3125 0.087499999
1.0125 2.3375001 0.087499999
1.0625 2.3625 0.087499999
1.0875 2.3875 0.087499999
1.1875 2.3125 0.087499999
1.1375 2.3625 0.0625
1.1125 2.3625 0.087499999
1.1125 2.3875 0.087499999
1.0125 2.2125001 0.1125
1.0375 2.2125001 0.1125
1.0125 2.2375 0.1125
1.0375 2.2375 0.1125
1.0125 2.2125001 0.1375
1.0125 2.2375 0.1375
1.0375 2.2375 0.1375
1.0625 2.2125001 0.1125
1.0875 2.2125001 0.1125
1.0625 2.2375 0.1125
1.0875 2.2125001 0.1375
1.0625 2.2375 0.1375
1.0875 2.2375 0.1375
1.0125 2.2625 0.1125
1.0125 2.2625 0.1375
1.0375 2.2625 0.1375
1.0375 2.2874999 0.1375
1.0625 2.2625 0.1375
1.0875 2.2625 0.1375
1.0625 2.2874999 0.1375
1.0875 2.2874999 0.1375
1.0125 2.2625 0.16249999
1.0375 2.2625 0.16249999
1.0125 2.2874999 0.16249999
1.0375 2.2874999 0.16249999
1.0625 2.2625 0.16249999
1.0875 2.2625 0.16249999
1.0625 2.2874999 0.16249999
1.0875 2.2874999 0.16249999
1.1125 2.2125001 0.1125
1.1375 2.2125001 0.1125
1.1375 2.2375 0.1125
1.1125 2.2125001 0.1375
1.1375 2.2125001 0.1375
1.1125 2.2375 0.1375
1.1375 2.2375 0.1375
1.175 2.2249999 0.125
1.1125 2.2625 0.1375
1.1375 2.2625 0.1375
1.1125 2.2874999 0.1375
1.1375 2.2874999 0.1375
1.1625 2.2625 0.1375
1.1875 2.2625 0.1375
1.1625 2.2874999 0.1375
1.1875 2.2874999 0.1375
1.1125 2.2625 0.16249999
1.1125 2.2874999 0.16249999
1.1375 2.2874999 0.16249999
1.1625 2.2625 0.16249999
1.1875 2.2625 0.16249999
1.1625 2.2874999 0.16249999
1.1875 2.2874999 0.16249999
1.1625 2.2874999 0.1875
1.1875 2.2874999 0.1875
1.0375 2.3625 0.1375
1.0625 2.3625 0.1375
1.0875 2.3625 0.1375
1.0625 2.3875 0.1375
1.0875 2.3875 0.1375
1.0125 2.3125 0.16249999
1.0375 2.3125 0.16249999
1.0125 2.3375001 0.16249999
1.0125 2.3125 0.1875
1.0375 2.3125 0.1875
1.0125 2.3375001 0.1875
1.0375 2.3375001 0.1875
1.0625 2.3125 0.16249999
1.0875 2.3125 0.16249999
1.0625 2.3125 0.1875
1.0875 2.3125 0.1875
1.0625 2.3375001 0.1875
1.0875 2.3375001 0.1875
1.0125 2.3625 0.16249999
1.0375 2.3625 0.16249999
1.0125 2.3875 0.16249999
1.0375 2.3875 0.16249999
1.0125 2.3875 0.1875
1.0375 2.3875 0.1875
1.0875 2.3625 0.16249999
1.0625 2.3875 0.16249999
1.0875 2.3875 0.16249999
1.0625 2.3625 0.1875
1.0875 2.3625 0.1875
1.0625 2.3875 0.1875
1.0875 2.3875 0.1875
1.1375 2.3125 0.1125
1.1125 2.3375001 0.1125
1.1375 2.3375001 0.1125
1.1125 2.3375001 0.1375
1.1625 2.3125 0.1125
1.1875 2.3125 0.1125
1.1625 2.3375001 0.1125
1.1875 2.3375001 0.1125
1.1625 2.3375001 0.1375
1.1875 2.3375001 0.1375
1.1375 2.3625 0.1125
1.1125 2.3625 0.1375
1.1375 2.3625 0.1375
1.1125 2.3875 0.1375
1.1375 2.3875 0.1375
1.1625 2.3875 0.1375
1.1875 2.3875 0.1375
1.1125 2.3125 0.16249999
1.1375 2.3125 0.16249999
1.1125 2.3375001 0.16249999
1.1125 2.3125 0.1875
1.1375 2.3125 0.1875
1.1125 2.3375001 0.1875
1.1375 2.3375001 0.1875
1.1625 2.3125 0.16249999
1.1875 2.3125 0.16249999
1.1625 2.3375001 0.16249999
1.1625 2.3125 0.1875
1.1875 2.3125 0.1875
1.1625 2.3375001 0.1875
1.1875 2.3375001 0.1875
1.1125 2.3625 0.16249999
1.1375 2.3625 0.16249999
1.1125 2.3875 0.16249999
1.1375 2.3875 0.16249999
1.1125 2.3625 0.1875
1.1375 2.3625 0.1875
1.1625 2.3625 0.16249999
1.1875 2.3625 0.16249999
1.1625 2.3875 0.16249999
1.1875 2.3875 0.16249999
1.1625 2.3625 0.1875
1.1875 2.3625 0.1875
0.8125 2.0125 0.21250001
0.83749998 2.0125 0.21250001
0.83749998 2.0374999 0.21250001
0.8125 2.0125 0.2375
0.83749998 2.0125 0.2375
0.8125 2.0374999 0.2375
0.83749998 2.0374999 0.2375
0.875 2.0250001 0.22499999
0.8125 2.0625 0.21250001
0.83749998 2.0625 0.21250001
0.8125 2.0875001 0.21250001
0.8125 2.0625 0.2375
0.83749998 2.0625 0.2375
0.86250001 2.0625 0.21250001
0.86250001 2.0625 0.2375
0.88749999 2.0625 0.2375
0.8125 2.0125 0.26249999
0.83749998 2.0125 0.26249999
0.8125 2.0374999 0.26249999
0.83749998 2.0374999 0.26249999
0.83749998 2.0125 0.28749999
0.8125 2.0374999 0.28749999
0.83749998 2.0374999 0.28749999
0.86250001 2.0125 0.26249999
0.88749999 2.0125 0.26249999
0.86250001 2.0374999 0.26249999
0.88749999 2.0374999 0.26249999
0.86250001 2.0125 0.28749999
0.86250001 2.0374999 0.28749999
0.88749999 2.0374999 0.28749999
0.83749998 2.0625 0.26249999
0.8125 2.0875001 0.26249999
0.83749998 2.0625 0.28749999
0.8125 2.0875001 0.28749999
0.83749998 2.0875001 0.28749999
0.86250001 2.0625 0.26249999
0.88749999 2.0625 0.26249999
0.86250001 2.0875001 0.26249999
0.86250001 2.0625 0.28749999
0.88749999 2.0625 0.28749999
0.86250001 2.0875001 0.28749999
0.88749999 2.0875001 0.28749999
0.86250001 2.1125 0.21250001
0.86250001 2.1624999 0.21250001
0.86250001 2.1875 0.21250001
0.8125 2.1125 0.28749999
0.83749998 2.1125 0.28749999
0.8125 2.1375 0.28749999
0.83749998 2.0125 0.3125
0.8125 2.0374999 0.3125
0.83749998 2.0374999 0.3125
0.8125 2.0374999 0.33750001
0.83749998 2.0374999 0.33750001
0.86250001 2.0125 0.3125
0.86250001 2.0374999 0.3125
0.86250001 2.0374999 0.33750001
0.8125 2.0625 0.3125
0.83749998 2.0625 0.3125
0.8125 2.0875001 0.3125
0.83749998 2.0875001 0.3125
0.8125 2.0625 0.33750001
0.83749998 2.0625 0.33750001
0.875 2.075 0.32499999
0.8125 2.0625 0.36250001
0.83749998 2.0625 0.36250001
0.83749998 2.0625 0.38749999
0.83749998 2.0875001 0.38749999
0.86250001 2.0625 0.36250001
0.86250001 2.0875001 0.36250001
0.86250001 2.0625 0.38749999
0.86250001 2.0875001 0.38749999
0.91250002 2.0875001 0.3125
0.8125 2.1125 0.3125
0.83749998 2.1125 0.3125
0.8125 2.1375 0.3125
0.83749998 2.1375 0.3125
0.83749998 2.1125 0.33750001
0.8125 2.1375 0.33750001
0.83749998 2.1375 0.33750001
0.86250001 2.1125 0.3125
0.88749999 2.1125 0.3125
0.86250001 2.1375 0.3125
0.86250001 2.1125 0.33750001
0.88749999 2.1125 0.33750001
0.86250001 2.1375 0.33750001
0.88749999 2.1375 0.33750001
0.8125 2.1624999 0.3125
0.83749998 2.1624999 0.3125
0.8125 2.1624999 0.33750001
0.88749999 2.1875 0.33750001
0.83749998 2.1125 0.36250001
0.83749998 2.1375 0.36250001
0.83749998 2.1375 0.38749999
0.875 2.125 0.375
0.86250001 2.1624999 0.36250001
0.88749999 2.1624999 0.36250001
0.88749999 2.1875 0.36250001
0.91250002 2.1624999 0.36250001
0.91250002 2.1875 0.36250001
0.91250002 2.1624999 0.38749999
0.86250001 2.2125001 0.21250001
0.8125 2.2625 0.21250001
0.8125 2.2874999 0.21250001
0.83749998 2.2874999 0.21250001
0.8125 2.2625 0.2375
0.8125 2.2874999 0.2375
0.83749998 2.2874999 0.2375
0.86250001 2.2874999 0.21250001
0.88749999 2.2874999 0.21250001
0.86250001 2.2874999 0.2375
0.88749999 2.2874999 0.2375
0.8125 2.2625 0.26249999
0.8125 2.2874999 0.26249999
0.83749998 2.2874999 0.26249999
0.8125 2.2874999 0.28749999
0.83749998 2.2874999 0.28749999
0.86250001 2.2874999 0.26249999
0.88749999 2.2874999 0.26249999
0.86250001 2.2874999 0.28749999
0.88749999 2.2874999 0.28749999
0.91250002 2.2874999 0.21250001
0.91250002 2.2874999 0.2375
0.91250002 2.2874999 0.26249999
0.8125 2.3125 0.21250001
0.83749998 2.3125 0.21250001
0.8125 2.3375001 0.21250001
0.83749998 2.3375001 0.21250001
0.83749998 2.3125 0.2375
0.83749998 2.3375001 0.2375
0.875 2.325 0.22499999
0.82499999 2.375 0.22499999
0.86250001 2.3625 0.21250001
0.86250001 2.3875 0.21250001
0.88749999 2.3875 0.21250001
0.86250001 2.3625 0.2375
0.88749999 2.3625 0.2375
0.86250001 2.3875 0.2375
0.88749999 2.3875 0.2375
0.8125 2.3375001 0.26249999
0.8125 2.3125 0.28749999
0.86250001 2.3125 0.26249999
0.88749999 2.3125 0.26249999
0.86250001 2.3375001 0.26249999
0.88749999 2.3375001 0.26249999
0.86250001 2.3125 0.28749999
0.88749999 2.3125 0.28749999
0.88749999 2.3375001 0.28749999
0.82499999 2.375 0.27500001
0.86250001 2.3625 0.26249999
0.88749999 2.3625 0.26249999
0.86250001 2.3875 0.26249999
0.86250001 2.3625 0.28749999
0.88749999 2.3625 0.28749999
0.86250001 2.3875 0.28749999
0.88749999 2.3875 0.28749999
0.91250002 2.3125 0.21250001
0.91250002 2.3125 0.2375
0.91250002 2.3375001 0.2375
0.91250002 2.3875 0.21250001
0.9375 2.3875 0.21250001
0.91250002 2.3875 0.2375
0.9375 2.3875 0.2375
0.96249998 2.3875 0.21250001
0.98750001 2.3875 0.21250001
0.96249998 2.3875 0.2375
0.98750001 2.3875 0.2375
0.91250002 2.3125 0.26249999
0.9375 2.3125 0.26249999
0.91250002 2.3375001 0.26249999
0.91250002 2.3125 0.28749999
0.9375 2.3125 0.28749999
0.91250002 2.3375001 0.28749999
0.92500001 2.375 0.27500001
0.98750001 2.3625 0.26249999
0.96249998 2.3875 0.26249999
0.98750001 2.3875 0.26249999
0.96249998 2.3625 0.28749999
0.98750001 2.3625 0.28749999
0.96249998 2.3875 0.28749999
0.98750001 2.3875 0.28749999
0.83749998 2.2874999 0.3125
0.86250001 2.2874999 0.3125
0.88749999 2.2874999 0.3125
0.86250001 2.2874999 0.33750001
0.88749999 2.2874999 0.33750001
0.83749998 2.2874999 0.36250001
0.83749998 2.2874999 0.38749999
0.86250001 2.2874999 0.36250001
0.86250001 2.2874999 0.38749999
0.88749999 2.2874999 0.38749999
0.91250002 2.2874999 0.3125
0.91250002 2.2874999 0.33750001
0.83749998 2.3375001 0.3125
0.8125 2.3125 0.33750001
0.86250001 2.3125 0.3125
0.88749999 2.3125 0.3125
0.86250001 2.3125 0.33750001
0.82499999 2.375 0.32499999
0.88749999 2.3625 0.3125
0.86250001 2.3875 0.3125
0.88749999 2.3875 0.3125
0.88749999 2.3625 0.33750001
0.86250001 2.3875 0.33750001
0.83749998 2.3375001 0.36250001
0.83749998 2.3125 0.38749999
0.86250001 2.3375001 0.36250001
0.88749999 2.3375001 0.36250001
0.88749999 2.3375001 0.38749999
0.8125 2.3625 0.36250001
0.83749998 2.3625 0.36250001
0.8125 2.3875 0.36250001
0.83749998 2.3875 0.36250001
0.88749999 2.3625 0.36250001
0.86250001 2.3875 0.36250001
0.88749999 2.3875 0.36250001
0.91250002 2.3125 0.3125
0.91250002 2.3375001 0.3125
0.9375 2.3375001 0.3125
0.91250002 2.3125 0.33750001
0.9375 2.3125 0.33750001
0.91250002 2.3375001 0.33750001
0.9375 2.3375001 0.33750001
0.91250002 2.3625 0.3125
0.9375 2.3625 0.3125
0.91250002 2.3625 0.33750001
0.9375 2.3625 0.33750001
0.91250002 2.3875 0.33750001
0.96249998 2.3625 0.3125
0.98750001 2.3625 0.3125
0.98750001 2.3875 0.3125
0.96249998 2.3625 0.33750001
0.98750001 2.3625 0.33750001
0.96249998 2.3875 0.33750001
0.98750001 2.3875 0.33750001
0.91250002 2.3125 0.36250001
0.9375 2.3125 0.36250001
0.91250002 2.3375001 0.36250001
0.91250002 2.3375001 0.38749999
0.9375 2.3375001 0.38749999
0.91250002 2.3625 0.36250001
0.9375 2.3625 0.36250001
0.91250002 2.3875 0.36250001
0.9375 2.3875 0.36250001
0.91250002 2.3875 0.38749999
0.9375 2.3875 0.38749999
0.96249998 2.3625 0.36250001
0.96249998 2.3875 0.36250001
0.98750001 2.3875 0.36250001
0.96249998 2.3875 0.38749999
1.0125 2.3875 0.21250001
1.0125 2.3875 0.2375
1.0375 2.3875 0.2375
1.0625 2.3875 0.21250001
1.0125 2.3875 0.26249999
1.0375 2.3875 0.26249999
1.0125 2.3625 0.28749999
1.0125 2.3875 0.28749999
1.0375 2.3875 0.28749999
1.0625 2.3875 0.26249999
1.0625 2.3875 0.28749999
1.0875 2.3875 0.28749999
1.1375 2.3125 0.21250001
1.1375 2.3375001 0.21250001
1.1625 2.3125 0.21250001
1.1875 2.3125 0.21250001
1.1625 2.3375001 0.21250001
1.0125 2.3875 0.3125
1.0375 2.3875 0.3125
1.0125 2.3875 0.33750001
1.0375 2.3875 0.33750001
1.0625 2.3875 0.3125
1.0125 2.3875 0.36250001
1.0375 2.3875 0.36250001
1.2375 2.1875 0.0625
1.2375 2.1875 0.087499999
1.2625 2.1624999 0.0625
1.2625 2.1875 0.0625
1.2625 2.1624999 0.087499999
1.2625 2.1875 0.087499999
1.3125 2.1875 0.0625
1.3125 2.1875 0.087499999
1.3375 2.1875 0.087499999
1.3625 2.1875 0.0625
1.3625 2.1875 0.087499999
1.3875 2.1875 0.087499999
1.2625 2.1875 0.1125
1.3375 2.1875 0.1125
1.3625 2.1875 0.1375
1.4125 2.1875 0.0625
1.4625 2.1875 0.0625
1.4625 2.1875 0.087499999
1.5375 2.1875 0.0625
1.5375 2.1875 0.087499999
1.5625 2.1875 0.087499999
1.4875 2.1875 0.1375
1.5125 2.1875 0.1375
1.2125 2.2125001 0.087499999
1.2375 2.2125001 0.087499999
1.2125 2.2375 0.087499999
1.2375 2.2375 0.087499999
1.2875 2.2375 0.0625
1.2625 2.2125001 0.087499999
1.2875 2.2125001 0.087499999
1.2625 2.2375 0.087499999
1.2875 2.2375 0.087499999
1.2625 2.2874999 0.0625
1.2875 2.2874999 0.087499999
1.3125 2.2125001 0.0625
1.3375 2.2125001 0.0625
1.3125 2.2125001 0.087499999
1.3375 2.2125001 0.087499999
1.3625 2.2125001 0.0625
1.3875 2.2125001 0.0625
1.3625 2.2125001 0.087499999
1.3875 2.2125001 0.087499999
1.3625 2.2375 0.087499999
1.3875 2.2375 0.087499999
1.3375 2.2625 0.087499999
1.3875 2.2625 0.0625
1.3625 2.2625 0.087499999
1.3625 2.2874999 0.087499999
1.2125 2.3125 0.087499999
1.3375 2.3125 0.0625
1.3375 2.3375001 0.0625
1.3375 2.3125 0.087499999
1.3625 2.3125 0.0625
1.3875 2.3125 0.0625
1.3625 2.3375001 0.0625
1.3625 2.3125 0.087499999
1.3875 2.3125 0.087499999
1.2125 2.2125001 0.1125
1.2125 2.2375 0.1125
1.2375 2.2375 0.1125
1.2125 2.2125001 0.1375
1.2375 2.2125001 0.1375
1.2125 2.2375 0.1375
1.2375 2.2375 0.1375
1.2625 2.2125001 0.1125
1.2875 2.2125001 0.1125
1.2625 2.2375 0.1125
1.2875 2.2375 0.1125
1.2625 2.2125001 0.1375
1.2625 2.2375 0.1375
1.2875 2.2375 0.1375
1.2125 2.2625 0.1375
1.2375 2.2625 0.1375
1.2125 2.2874999 0.1375
1.2625 2.2625 0.1125
1.2625 2.2625 0.1375
1.2875 2.2625 0.1375
1.2375 2.2375 0.16249999
1.2875 2.2375 0.16249999
1.2625 2.2375 0.1875
1.225 2.2750001 0.175
1.2625 2.2625 0.16249999
1.2625 2.2874999 0.16249999
1.2625 2.2625 0.1875
1.2875 2.2625 0.1875
1.2625 2.2874999 0.1875
1.2875 2.2874999 0.1875
1.3125 2.2125001 0.1125
1.3375 2.2125001 0.1125
1.3125 2.2375 0.1125
1.3375 2.2375 0.1125
1.3375 2.2125001 0.1375
1.3125 2.2375 0.1375
1.3375 2.2375 0.1375
1.3625 2.2125001 0.1125
1.3875 2.2125001 0.1125
1.3625 2.2375 0.1125
1.3875 2.2375 0.1125
1.3625 2.2125001 0.1375
1.3625 2.2375 0.1375
1.3875 2.2375 0.1375
1.3375 2.2625 0.1125
1.3375 2.2874999 0.1125
1.3125 2.2625 0.1375
1.3375 2.2625 0.1375
1.375 2.2750001 0.125
1.3125 2.2375 0.16249999
1.3375 2.2375 0.16249999
1.3125 2.2375 0.1875
1.3375 2.2375 0.1875
1.3625 2.2375 0.16249999
1.3625 2.2375 0.1875
1.3125 2.2625 0.16249999
1.3375 2.2625 0.16249999
1.3125 2.2625 0.1875
1.3375 2.2625 0.1875
1.3125 2.2874999 0.1875
1.3375 2.2874999 0.1875
1.3625 2.2625 0.16249999
1.3875 2.2625 0.16249999
1.3625 2.2874999 0.16249999
1.3875 2.2874999 0.16249999
1.3625 2.2874999 0.1875
1.3875 2.2874999 0.1875
1.2125 2.3125 0.1125
1.2375 2.3125 0.1125
1.2125 2.3375001 0.1375
1.2375 2.3375001 0.1375
1.2625 2.3125 0.1125
1.2875 2.3125 0.1125
1.2625 2.3375001 0.1375
1.2125 2.3875 0.1375
1.2375 2.3875 0.1375
1.2625 2.3625 0.1375
1.2625 2.3875 0.1375
1.2875 2.3875 0.1375
1.2125 2.3125 0.16249999
1.2125 2.3375001 0.16249999
1.2375 2.3375001 0.16249999
1.2125 2.3125 0.1875
1.2375 2.3125 0.1875
1.2125 2.3375001 0.1875
1.2375 2.3375001 0.1875
1.2625 2.3375001 0.16249999
1.2875 2.3375001 0.16249999
1.2625 2.3125 0.1875
1.2875 2.3125 0.1875
1.2625 2.3375001 0.1875
1.2875 2.3375001 0.1875
1.2125 2.3625 0.16249999
1.2375 2.3625 0.16249999
1.2125 2.3875 0.16249999
1.2375 2.3875 0.16249999
1.2125 2.3625 0.1875
1.2375 2.3625 0.1875
1.2125 2.3875 0.1875
1.2625 2.3625 0.16249999
1.2875 2.3625 0.16249999
1.2625 2.3875 0.16249999
1.2875 2.3875 0.16249999
1.2625 2.3625 0.1875
1.2875 2.3625 0.1875
1.3125 2.3125 0.1125
1.3375 2.3125 0.1125
1.3125 2.3125 0.1375
1.3125 2.3375001 0.1375
1.3375 2.3375001 0.1375
1.3625 2.3125 0.1125
1.3875 2.3125 0.1125
1.3875 2.3375001 0.1125
1.3625 2.3125 0.1375
1.3625 2.3375001 0.1375
1.3875 2.3375001 0.1375
1.3125 2.3625 0.1375
1.3375 2.3625 0.1375
1.3125 2.3875 0.1375
1.3625 2.3625 0.1375
1.3875 2.3625 0.1375
1.3875 2.3875 0.1375
1.3375 2.3125 0.16249999
1.3125 2.3375001 0.16249999
1.3375 2.3375001 0.16249999
1.3125 2.3125 0.1875
1.3375 2.3125 0.1875
1.3125 2.3375001 0.1875
1.3375 2.3375001 0.1875
1.3625 2.3375001 0.16249999
1.3875 2.3375001 0.16249999
1.3625 2.3125 0.1875
1.3875 2.3125 0.1875
1.3625 2.3375001 0.1875
1.3875 2.3375001 0.1875
1.3125 2.3625 0.16249999
1.3375 2.3625 0.16249999
1.3125 2.3875 0.16249999
1.3375 2.3875 0.16249999
1.3125 2.3625 0.1875
1.3375 2.3625 0.1875
1.3375 2.3875 0.1875
1.3625 2.3625 0.16249999
1.3875 2.3625 0.16249999
1.3625 2.3875 0.16249999
1.3875 2.3875 0.16249999
1.3625 2.3625 0.1875
1.3875 2.3625 0.1875
1.3875 2.3875 0.1875
1.4125 2.2125001 0.087499999
1.4375 2.2125001 0.087499999
1.4125 2.2375 0.087499999
1.4375 2.2375 0.087499999
1.4625 2.2125001 0.0625
1.4875 2.2125001 0.0625
1.4625 2.2375 0.0625
1.4625 2.2125001 0.087499999
1.4875 2.2125001 0.087499999
1.4625 2.2375 0.087499999
1.4875 2.2375 0.087499999
1.4375 2.2625 0.0625
1.4125 2.2625 0.087499999
1.4375 2.2625 0.087499999
1.4875 2.2625 0.0625
1.4625 2.2625 0.087499999
1.4875 2.2625 0.087499999
1.4875 2.2874999 0.087499999
1.5125 2.2125001 0.087499999
1.5375 2.2125001 0.087499999
1.5125 2.2375 0.087499999
1.5375 2.2375 0.087499999
1.5625 2.2125001 0.0625
1.5625 2.2375 0.0625
1.5875 2.2375 0.0625
1.5625 2.2125001 0.087499999
1.5625 2.2375 0.087499999
1.5875 2.2375 0.087499999
1.5125 2.2625 0.0625
1.5375 2.2625 0.0625
1.5125 2.2625 0.087499999
1.5375 2.2625 0.087499999
1.5125 2.2874999 0.087499999
1.5375 2.2874999 0.087499999
1.5875 2.2625 0.0625
1.5875 2.2874999 0.0625
1.5625 2.2625 0.087499999
1.5875 2.2625 0.087499999
1.5625 2.2874999 0.087499999
1.5875 2.2874999 0.087499999
1.4125 2.3125 0.0625
1.4375 2.3125 0.087499999
1.4875 2.3125 0.0625
1.4875 2.3125 0.087499999
1.4875 2.3625 0.0625
1.4875 2.3875 0.0625
1.4875 2.3625 0.087499999
1.4875 2.3875 0.087499999
1.5125 2.3125 0.087499999
1.5375 2.3125 0.087499999
1.5125 2.3375001 0.087499999
1.5375 2.3375001 0.087499999
1.575 2.325 0.075000003
1.5125 2.3625 0.0625
1.5375 2.3625 0.0625
1.5125 2.3875 0.0625
1.5375 2.3625 0.087499999
1.5125 2.3875 0.087499999
1.5375 2.3875 0.087499999
1.5625 2.3625 0.0625
1.5875 2.3625 0.0625
1.5625 2.3875 0.0625
1.5625 2.3625 0.087499999
1.5875 2.3625 0.087499999
1.5625 2.3875 0.087499999
1.5875 2.3875 0.087499999
1.4125 2.2125001 0.1125
1.4375 2.2125001 0.1125
1.4125 2.2375 0.1125
1.4375 2.2375 0.1125
1.4125 2.2125001 0.1375
1.4125 2.2375 0.1375
1.4375 2.2375 0.1375
1.4625 2.2125001 0.1125
1.4875 2.2125001 0.1125
1.4625 2.2375 0.1125
1.4875 2.2375 0.1125
1.4625 2.2125001 0.1375
1.4625 2.2375 0.1375
1.4875 2.2375 0.1375
1.4125 2.2625 0.1125
1.4375 2.2625 0.1125
1.4125 2.2874999 0.1125
1.4375 2.2874999 0.1125
1.4125 2.2625 0.1375
1.4375 2.2625 0.1375
1.4375 2.2874999 0.1375
1.4625 2.2625 0.1125
1.4875 2.2625 0.1125
1.4875 2.2874999 0.1125
1.4625 2.2625 0.1375
1.4875 2.2625 0.1375
1.4625 2.2874999 0.1375
1.4875 2.2874999 0.1375
1.4375 2.2625 0.16249999
1.4125 2.2874999 0.16249999
1.4375 2.2874999 0.16249999
1.4125 2.2874999 0.1875
1.4375 2.2874999 0.1875
1.4625 2.2625 0.16249999
1.4875 2.2625 0.16249999
1.4625 2.2874999 0.16249999
1.4875 2.2874999 0.16249999
1.5125 2.2125001 0.1125
1.5125 2.2375 0.1125
1.5125 2.2375 0.1375
1.5375 2.2375 0.1375
1.5125 2.2625 0.1125
1.5375 2.2625 0.1125
1.5125 2.2874999 0.1125
1.5375 2.2874999 0.1125
1.5125 2.2625 0.1375
1.5125 2.2874999 0.1375
1.5625 2.2625 0.1125
1.5625 2.2874999 0.1125
1.5125 2.2375 0.16249999
1.5125 2.2625 0.16249999
1.5375 2.2625 0.16249999
1.5125 2.2874999 0.16249999
1.4125 2.3125 0.1125
1.4375 2.3125 0.1125
1.4125 2.3375001 0.1125
1.4375 2.3375001 0.1125
1.4125 2.3375001 0.1375
1.4375 2.3375001 0.1375
1.4625 2.3125 0.1125
1.4875 2.3125 0.1125
1.4625 2.3375001 0.1125
1.4875 2.3375001 0.1125
1.4625 2.3375001 0.1375
1.4875 2.3375001 0.1375
1.4125 2.3625 0.1375
1.4375 2.3625 0.1375
1.4375 2.3875 0.1375
1.4875 2.3625 0.1125
1.4875 2.3875 0.1125
1.4625 2.3625 0.1375
1.4875 2.3625 0.1375
1.4625 2.3875 0.1375
1.4875 2.3875 0.1375
1.4125 2.3125 0.16249999
1.4375 2.3125 0.16249999
1.4125 2.3125 0.1875
1.4375 2.3125 0.1875
1.4125 2.3375001 0.1875
1.4375 2.3375001 0.1875
1.475 2.325 0.175
1.4125 2.3625 0.16249999
1.4125 2.3875 0.16249999
1.4375 2.3875 0.16249999
1.4375 2.3625 0.1875
1.4875 2.3625 0.16249999
1.4625 2.3875 0.16249999
1.4875 2.3875 0.16249999
1.4625 2.3625 0.1875
1.4875 2.3625 0.1875
1.4625 2.3875 0.1875
1.4875 2.3875 0.1875
1.5125 2.3125 0.1125
1.5375 2.3125 0.1125
1.5125 2.3375001 0.1125
1.5375 2.3375001 0.1125
1.5125 2.3125 0.1375
1.5125 2.3375001 0.1375
1.5375 2.3375001 0.1375
1.5625 2.3375001 0.1125
1.5875 2.3375001 0.1125
1.5625 2.3375001 0.1375
1.5875 2.3375001 0.1375
1.5125 2.3875 0.1125
1.5375 2.3875 0.1125
1.5125 2.3625 0.1375
1.5375 2.3625 0.1375
1.5125 2.3875 0.1375
1.5375 2.3875 0.1375
1.575 2.375 0.125
1.5125 2.3125 0.16249999
1.5125 2.3375001 0.16249999
1.5375 2.3375001 0.16249999
1.5125 2.3125 0.1875
1.5125 2.3625 0.16249999
1.5375 2.3625 0.16249999
1.5125 2.3875 0.16249999
1.5375 2.3875 0.16249999
1.5375 2.3625 0.1875
1.5125 2.3875 0.1875
1.5375 2.3875 0.1875
1.575 2.375 0.175
1.3375 2.2125001 0.21250001
1.3375 2.2375 0.21250001
1.3625 2.2375 0.21250001
1.3375 2.2625 0.21250001
1.3375 2.2874999 0.21250001
1.3625 2.2874999 0.21250001
1.2875 2.3125 0.21250001
1.2625 2.3375001 0.21250001
1.2875 2.3375001 0.21250001
1.2625 2.3625 0.21250001
1.3375 2.3125 0.21250001
1.3125 2.3375001 0.21250001
1.3375 2.3375001 0.21250001
1.3625 2.3375001 0.21250001
1.3875 2.3375001 0.21250001
1.3625 2.3625 0.21250001
1.3875 2.3625 0.21250001
1.3625 2.3875 0.21250001
1.3875 2.3875 0.21250001
1.3625 2.3875 0.2375
1.4375 2.3125 0.21250001
1.4125 2.3375001 0.21250001
1.4375 2.3375001 0.21250001
1.4625 2.3375001 0.21250001
1.4125 2.3625 0.21250001
1.4375 2.3625 0.21250001
1.4125 2.3875 0.21250001
1.4375 2.3875 0.21250001
1.4625 2.3625 0.21250001
1.4625 2.3875 0.21250001
1.4875 2.3875 0.21250001
1.5125 2.3875 0.21250001
1.5375 2.3875 0.21250001
1.5625 2.3625 0.21250001
1.5875 2.3625 0.21250001
1.5625 2.3875 0.21250001
1.5875 2.3875 0.21250001
1.5625 2.3875 0.2375
1.5875 2.3875 0.2375
0.83749998 2.0875001 0.41249999
0.86250001 2.0625 0.41249999
0.86250001 2.0875001 0.41249999
0.86250001 2.0625 0.4375
0.86250001 2.0875001 0.4375
0.88749999 2.0875001 0.4375
0.83749998 2.1125 0.41249999
0.83749998 2.1375 0.41249999
0.8125 2.1125 0.4375
0.83749998 2.1125 0.4375
0.86250001 2.1125 0.41249999
0.88749999 2.1125 0.41249999
0.86250001 2.1375 0.41249999
0.88749999 2.1375 0.41249999
0.86250001 2.1125 0.4375
0.86250001 2.1375 0.4375
0.86250001 2.1624999 0.41249999
0.88749999 2.1624999 0.41249999
0.86250001 2.1624999 0.4375
0.88749999 2.1624999 0.4375
0.8125 2.1125 0.46250001
0.83749998 2.1125 0.46250001
0.8125 2.1375 0.46250001
0.83749998 2.1375 0.46250001
0.8125 2.1375 0.48750001
0.83749998 2.1375 0.48750001
0.86250001 2.1375 0.46250001
0.86250001 2.1375 0.48750001
0.83749998 2.1875 0.46250001
0.86250001 2.1624999 0.46250001
0.86250001 2.1875 0.46250001
0.86250001 2.1624999 0.48750001
0.86250001 2.1875 0.48750001
0.83749998 2.1375 0.51249999
0.83749998 2.1624999 0.51249999
0.83749998 2.1624999 0.53750002
0.83749998 2.1875 0.53750002
0.86250001 2.1624999 0.51249999
0.86250001 2.1875 0.51249999
0.86250001 2.1624999 0.53750002
0.86250001 2.1875 0.53750002
0.8125 2.1875 0.5625
0.83749998 2.1875 0.5625
0.83749998 2.1875 0.58749998
0.86250001 2.1875 0.5625
0.86250001 2.1875 0.58749998
0.86250001 2.2874999 0.41249999
0.88749999 2.2874999 0.41249999
0.86250001 2.2874999 0.4375
0.88749999 2.2874999 0.4375
0.83749998 2.2125001 0.46250001
0.83749998 2.2125001 0.48750001
0.86250001 2.2125001 0.48750001
0.86250001 2.2874999 0.46250001
0.88749999 2.2874999 0.46250001
0.88749999 2.2874999 0.48750001
0.91250002 2.2625 0.4375
0.91250002 2.2625 0.46250001
0.9375 2.2625 0.46250001
0.91250002 2.2625 0.48750001
0.9375 2.2625 0.48750001
0.91250002 2.2874999 0.48750001
0.83749998 2.3125 0.4375
0.83749998 2.3375001 0.4375
0.86250001 2.3125 0.41249999
0.86250001 2.3125 0.4375
0.86250001 2.3875 0.41249999
0.88749999 2.3875 0.41249999
0.88749999 2.3875 0.4375
0.83749998 2.3375001 0.46250001
0.83749998 2.3375001 0.48750001
0.86250001 2.3125 0.46250001
0.86250001 2.3125 0.48750001
0.9375 2.3375001 0.41249999
0.9375 2.3375001 0.4375
0.91250002 2.3625 0.41249999
0.91250002 2.3875 0.41249999
0.91250002 2.3625 0.4375
0.9375 2.3625 0.4375
0.91250002 2.3875 0.4375
0.9375 2.3875 0.4375
0.86250001 2.2125001 0.51249999
0.86250001 2.2125001 0.53750002
0.8125 2.2625 0.53750002
0.83749998 2.2625 0.53750002
0.8125 2.2874999 0.53750002
0.83749998 2.2874999 0.53750002
0.88749999 2.2874999 0.51249999
0.86250001 2.2874999 0.53750002
0.88749999 2.2874999 0.53750002
0.8125 2.2375 0.5625
0.83749998 2.2375 0.5625
0.83749998 2.2125001 0.58749998
0.83749998 2.2375 0.58749998
0.86250001 2.2125001 0.5625
0.86250001 2.2375 0.5625
0.88749999 2.2375 0.5625
0.86250001 2.2125001 0.58749998
0.86250001 2.2375 0.58749998
0.8125 2.2625 0.5625
0.83749998 2.2625 0.5625
0.83749998 2.2874999 0.5625
0.83749998 2.2625 0.58749998
0.83749998 2.2874999 0.58749998
0.86250001 2.2625 0.5625
0.88749999 2.2625 0.5625
0.86250001 2.2874999 0.5625
0.88749999 2.2874999 0.5625
0.86250001 2.2625 0.58749998
0.86250001 2.2874999 0.58749998
0.88749999 2.2874999 0.58749998
0.9375 2.2625 0.51249999
0.91250002 2.2874999 0.51249999
0.91250002 2.2874999 0.53750002
0.86250001 2.3125 0.51249999
0.88749999 2.3125 0.51249999
0.88749999 2.3125 0.53750002
0.88749999 2.3375001 0.53750002
0.83749998 2.3625 0.51249999
0.86250001 2.3625 0.51249999
0.88749999 2.3125 0.5625
0.88749999 2.3375001 0.5625
0.86250001 2.3125 0.58749998
0.91250002 2.3125 0.51249999
0.91250002 2.3125 0.53750002
0.91250002 2.3125 0.5625
0.9375 2.3125 0.5625
0.83749998 2.2125001 0.61250001
0.83749998 2.2375 0.61250001
0.83749998 2.2125001 0.63749999
0.83749998 2.2375 0.63749999
0.86250001 2.2125001 0.61250001
0.86250001 2.2375 0.61250001
0.86250001 2.2375 0.63749999
0.83749998 2.2625 0.61250001
0.83749998 2.2625 0.63749999
0.86250001 2.2625 0.61250001
0.86250001 2.2874999 0.61250001
0.88749999 2.2874999 0.61250001
0.86250001 2.2625 0.63749999
0.86250001 2.2874999 0.63749999
0.88749999 2.2874999 0.63749999
0.83749998 2.2375 0.66250002
0.83749998 2.2625 0.66250002
0.83749998 2.2625 0.6875
0.86250001 2.2625 0.66250002
0.86250001 2.2874999 0.66250002
0.88749999 2.2874999 0.66250002
0.86250001 2.2625 0.6875
0.86250001 2.2874999 0.6875
0.88749999 2.2874999 0.6875
0.83749998 2.3375001 0.61250001
0.83749998 2.3375001 0.63749999
0.83749998 2.2625 0.71249998
0.8125 2.2874999 0.71249998
0.83749998 2.2874999 0.71249998
0.8125 2.2874999 0.73750001
0.83749998 2.2874999 0.73750001
0.875 2.2750001 0.72500002
0.88749999 2.2375 0.76249999
0.88749999 2.2375 0.78750002
0.83749998 2.2874999 0.76249999
0.88749999 2.2625 0.76249999
0.86250001 2.2625 0.78750002
0.88749999 2.2625 0.78750002
0.86250001 2.2874999 0.78750002
0.88749999 2.2874999 0.78750002
0.91250002 2.2625 0.71249998
0.91250002 2.2625 0.73750001
0.9375 2.2625 0.73750001
0.96249998 2.2625 0.73750001
0.98750001 2.2625 0.73750001
0.91250002 2.2375 0.78750002
0.9375 2.2375 0.78750002
0.91250002 2.2625 0.76249999
0.9375 2.2625 0.76249999
0.91250002 2.2625 0.78750002
0.9375 2.2625 0.78750002
0.91250002 2.2874999 0.78750002
0.9375 2.2874999 0.78750002
0.96249998 2.2625 0.76249999
0.98750001 2.2625 0.76249999
0.96249998 2.2625 0.78750002
0.98750001 2.2625 0.78750002
0.96249998 2.2874999 0.78750002
0.98750001 2.2874999 0.78750002
0.83749998 2.3125 0.71249998
0.8125 2.3125 0.73750001
0.83749998 2.3125 0.73750001
0.8125 2.3375001 0.73750001
0.83749998 2.3375001 0.73750001
0.86250001 2.3125 0.71249998
0.88749999 2.3125 0.71249998
0.86250001 2.3125 0.73750001
0.88749999 2.3125 0.73750001
0.86250001 2.3375001 0.73750001
0.88749999 2.3375001 0.73750001
0.8125 2.3125 0.76249999
0.83749998 2.3125 0.76249999
0.8125 2.3375001 0.76249999
0.83749998 2.3375001 0.76249999
0.8125 2.3125 0.78750002
0.83749998 2.3125 0.78750002
0.83749998 2.3375001 0.78750002
0.86250001 2.3125 0.76249999
0.86250001 2.3375001 0.76249999
0.88749999 2.3375001 0.76249999
0.86250001 2.3125 0.78750002
0.88749999 2.3125 0.78750002
0.86250001 2.3375001 0.78750002
0.88749999 2.3375001 0.78750002
0.8125 2.3625 0.76249999
0.83749998 2.3625 0.76249999
0.8125 2.3875 0.76249999
0.83749998 2.3875 0.76249999
0.83749998 2.3625 0.78750002
0.8125 2.3875 0.78750002
0.83749998 2.3875 0.78750002
0.86250001 2.3625 0.76249999
0.88749999 2.3625 0.76249999
0.86250001 2.3875 0.76249999
0.88749999 2.3875 0.76249999
0.86250001 2.3625 0.78750002
0.88749999 2.3625 0.78750002
0.91250002 2.3125 0.71249998
0.9375 2.3125 0.71249998
0.91250002 2.3125 0.73750001
0.9375 2.3125 0.73750001
0.91250002 2.3375001 0.73750001
0.9375 2.3375001 0.73750001
0.96249998 2.3125 0.71249998
0.96249998 2.3125 0.73750001
0.98750001 2.3125 0.73750001
0.96249998 2.3375001 0.73750001
0.98750001 2.3375001 0.73750001
0.9375 2.3625 0.73750001
0.9375 2.3875 0.73750001
0.96249998 2.3625 0.73750001
0.91250002 2.3125 0.76249999
0.91250002 2.3375001 0.76249999
0.9375 2.3375001 0.76249999
0.91250002 2.3125 0.78750002
0.9375 2.3125 0.78750002
0.91250002 2.3375001 0.78750002
0.98750001 2.3125 0.76249999
0.96249998 2.3375001 0.76249999
0.98750001 2.3375001 0.76249999
0.96249998 2.3125 0.78750002
0.98750001 2.3125 0.78750002
0.96249998 2.3375001 0.78750002
0.98750001 2.3375001 0.78750002
0.91250002 2.3625 0.76249999
0.9375 2.3625 0.76249999
0.91250002 2.3875 0.76249999
0.9375 2.3875 0.76249999
0.96249998 2.3625 0.76249999
0.98750001 2.3625 0.76249999
0.96249998 2.3875 0.76249999
0.98750001 2.3875 0.76249999
0.96249998 2.3625 0.78750002
0.98750001 2.3625 0.78750002
0.98750001 2.3875 0.78750002
1.0125 2.2625 0.73750001
1.0375 2.2625 0.73750001
1.0875 2.2375 0.76249999
1.0125 2.2625 0.76249999
1.0375 2.2625 0.76249999
1.0125 2.2625 0.78750002
1.0375 2.2625 0.78750002
1.0125 2.2874999 0.78750002
1.0375 2.2874999 0.78750002
1.0625 2.2625 0.76249999
1.0875 2.2625 0.76249999
1.0625 2.2874999 0.76249999
1.0875 2.2874999 0.76249999
1.0625 2.2625 0.78750002
1.0625 2.2874999 0.78750002
1.0875 2.2874999 0.78750002
1.1125 2.2375 0.73750001
1.1375 2.2375 0.73750001
1.1125 2.2625 0.73750001
1.1375 2.2625 0.73750001
1.1625 2.2625 0.73750001
1.1875 2.2625 0.73750001
1.1875 2.2874999 0.73750001
1.1125 2.2375 0.76249999
1.1375 2.2375 0.76249999
1.1125 2.2625 0.76249999
1.1375 2.2625 0.76249999
1.1125 2.2874999 0.76249999
1.1375 2.2874999 0.76249999
1.1125 2.2874999 0.78750002
1.1375 2.2874999 0.78750002
1.1625 2.2625 0.76249999
1.1875 2.2625 0.76249999
1.1625 2.2874999 0.76249999
1.1875 2.2874999 0.76249999
1.1625 2.2874999 0.78750002
1.1875 2.2874999 0.78750002
1.0125 2.3125 0.71249998
1.0375 2.3125 0.71249998
1.0125 2.3125 0.73750001
1.0375 2.3125 0.73750001
1.0125 2.3375001 0.73750001
1.0375 2.3375001 0.73750001
1.0625 2.3125 0.71249998
1.0625 2.3375001 0.71249998
1.0875 2.3375001 0.71249998
1.0625 2.3375001 0.73750001
1.0875 2.3375001 0.73750001
1.0125 2.3625 0.73750001
1.0375 2.3625 0.73750001
1.0625 2.3625 0.73750001
1.0875 2.3625 0.73750001
1.0625 2.3875 0.73750001
1.025 2.325 0.77499998
1.0625 2.3375001 0.76249999
1.0875 2.3375001 0.76249999
1.0625 2.3125 0.78750002
1.0875 2.3125 0.78750002
1.0625 2.3375001 0.78750002
1.0875 2.3375001 0.78750002
1.0125 2.3625 0.76249999
1.0375 2.3625 0.76249999
1.0125 2.3875 0.76249999
1.0375 2.3875 0.76249999
1.0375 2.3625 0.78750002
1.0125 2.3875 0.78750002
1.0375 2.3875 0.78750002
1.075 2.375 0.77499998
1.1125 2.3375001 0.71249998
1.1375 2.3375001 0.71249998
1.1125 2.3375001 0.73750001
1.1375 2.3375001 0.73750001
1.1625 2.3375001 0.71249998
1.1875 2.3375001 0.71249998
1.1625 2.3375001 0.73750001
1.1875 2.3375001 0.73750001
1.1125 2.3625 0.73750001
1.1375 2.3625 0.73750001
1.1125 2.3875 0.73750001
1.1625 2.3625 0.73750001
1.1125 2.3375001 0.76249999
1.1375 2.3375001 0.76249999
1.1125 2.3125 0.78750002
1.1375 2.3125 0.78750002
1.1125 2.3375001 0.78750002
1.1375 2.3375001 0.78750002
1.175 2.325 0.77499998
1.125 2.375 0.77499998
1.175 2.375 0.77499998
1.2125 2.2625 0.73750001
1.2375 2.2625 0.73750001
1.2125 2.2874999 0.73750001
1.2375 2.2874999 0.73750001
1.2625 2.2625 0.73750001
1.2875 2.2625 0.73750001
1.2625 2.2874999 0.73750001
1.2875 2.2874999 0.73750001
1.2125 2.2625 0.76249999
1.2375 2.2625 0.76249999
1.2125 2.2874999 0.76249999
1.2375 2.2874999 0.76249999
1.2125 2.2874999 0.78750002
1.2375 2.2874999 0.78750002
1.2625 2.2625 0.76249999
1.2625 2.2874999 0.76249999
1.2875 2.2874999 0.76249999
1.2625 2.2874999 0.78750002
1.2875 2.2874999 0.78750002
1.3125 2.2625 0.73750001
1.3375 2.2625 0.73750001
1.3125 2.2874999 0.73750001
1.3375 2.2874999 0.73750001
1.3875 2.2874999 0.71249998
1.3625 2.2625 0.73750001
1.3875 2.2625 0.73750001
1.3625 2.2874999 0.73750001
1.3875 2.2874999 0.73750001
1.3125 2.2874999 0.76249999
1.3375 2.2874999 0.76249999
1.3375 2.2874999 0.78750002
1.3625 2.2874999 0.76249999
1.3875 2.2874999 0.76249999
1.2125 2.3375001 0.71249998
1.2375 2.3375001 0.71249998
1.2125 2.3375001 0.73750001
1.2375 2.3375001 0.73750001
1.2625 2.3375001 0.71249998
1.2875 2.3375001 0.71249998
1.2625 2.3375001 0.73750001
1.2875 2.3375001 0.73750001
1.2625 2.3625 0.73750001
1.2875 2.3625 0.73750001
1.2625 2.3875 0.73750001
1.2875 2.3875 0.73750001
1.2125 2.3125 0.78750002
1.2375 2.3125 0.78750002
1.2125 2.3375001 0.78750002
1.2625 2.3125 0.78750002
1.2875 2.3125 0.78750002
1.2625 2.3375001 0.78750002
1.2125 2.3625 0.76249999
1.2375 2.3625 0.76249999
1.2125 2.3875 0.76249999
1.2125 2.3875 0.78750002
1.2375 2.3875 0.78750002
1.2625 2.3625 0.76249999
1.2875 2.3625 0.76249999
1.2625 2.3875 0.76249999
1.2875 2.3875 0.76249999
1.2625 2.3875 0.78750002
1.3375 2.3375001 0.71249998
1.3375 2.3375001 0.73750001
1.3625 2.3375001 0.71249998
1.3875 2.3375001 0.71249998
1.3625 2.3375001 0.73750001
1.3875 2.3375001 0.73750001
1.3125 2.3625 0.73750001
1.3375 2.3625 0.73750001
1.3125 2.3875 0.73750001
1.3375 2.3875 0.73750001
1.3625 2.3625 0.73750001
1.3875 2.3625 0.73750001
1.3125 2.3125 0.76249999
1.3375 2.3125 0.76249999
1.3375 2.3375001 0.76249999
1.3125 2.3125 0.78750002
1.3375 2.3125 0.78750002
1.3125 2.3375001 0.78750002
1.3375 2.3375001 0.78750002
1.375 2.325 0.77499998
1.3125 2.3625 0.76249999
1.3375 2.3625 0.76249999
1.3125 2.3875 0.76249999
1.3375 2.3875 0.76249999
1.3125 2.3625 0.78750002
1.3375 2.3625 0.78750002
1.3375 2.3875 0.78750002
1.375 2.375 0.77499998
1.4125 2.2874999 0.73750001
1.4375 2.2874999 0.73750001
1.4625 2.2874999 0.73750001
1.4875 2.2874999 0.73750001
1.4125 2.2874999 0.76249999
1.4375 2.2874999 0.76249999
1.4625 2.2874999 0.76249999
1.4875 2.2874999 0.76249999
1.5125 2.2874999 0.73750001
1.5375 2.2874999 0.73750001
1.5625 2.2874999 0.73750001
1.4125 2.3375001 0.71249998
1.4375 2.3375001 0.71249998
1.4125 2.3375001 0.73750001
1.4375 2.3375001 0.73750001
1.4625 2.3375001 0.71249998
1.4875 2.3375001 0.71249998
1.4875 2.3375001 0.73750001
1.4125 2.3625 0.73750001
1.4375 2.3625 0.73750001
1.4125 2.3875 0.73750001
1.4375 2.3875 0.73750001
1.4625 2.3625 0.73750001
1.4875 2.3625 0.73750001
1.4625 2.3875 0.73750001
1.4875 2.3875 0.73750001
1.425 2.325 0.77499998
1.475 2.325 0.77499998
1.425 2.375 0.77499998
1.475 2.375 0.77499998
1.5125 2.3375001 0.71249998
1.5375 2.3375001 0.71249998
1.5375 2.3125 0.73750001
1.5125 2.3375001 0.73750001
1.5375 2.3375001 0.73750001
1.5625 2.3375001 0.71249998
1.5875 2.3375001 0.71249998
1.5625 2.3125 0.73750001
1.5875 2.3125 0.73750001
1.5625 2.3375001 0.73750001
1.5875 2.3375001 0.73750001
1.5125 2.3625 0.73750001
1.5375 2.3625 0.73750001
1.5125 2.3875 0.73750001
1.5375 2.3875 0.73750001
1.5625 2.3625 0.71249998
1.5875 2.3625 0.71249998
1.5625 2.3625 0.73750001
1.5875 2.3625 0.73750001
1.5625 2.3875 0.73750001
1.5125 2.3125 0.76249999
1.5375 2.3125 0.76249999
1.5125 2.3375001 0.76249999
1.5375 2.3375001 0.76249999
1.5125 2.3125 0.78750002
1.5375 2.3125 0.78750002
1.5375 2.3375001 0.78750002
1.5625 2.3125 0.76249999
1.5875 2.3125 0.76249999
1.5625 2.3375001 0.76249999
1.5875 2.3375001 0.76249999
1.5625 2.3375001 0.78750002
1.5875 2.3375001 0.78750002
1.5125 2.3625 0.76249999
1.5375 2.3625 0.76249999
1.5125 2.3875 0.76249999
1.5375 2.3875 0.76249999
1.5375 2.3625 0.78750002
1.5125 2.3875 0.78750002
1.5375 2.3875 0.78750002
1.5625 2.3625 0.76249999
1.5875 2.3625 0.76249999
1.5625 2.3875 0.76249999
1.5875 2.3875 0.76249999
1.5875 2.3875 0.78750002
0.037500001 2.4124999 0.087499999
0.0625 2.4124999 0.0625
0.0625 2.4375 0.0625
0.0625 2.4124999 0.087499999
0.087499999 2.4124999 0.087499999
0.0625 2.4375 0.087499999
0.087499999 2.4375 0.087499999
0.0125 2.4625001 0.087499999
0.037500001 2.4625001 0.087499999
0.037500001 2.4875 0.087499999
0.0625 2.4875 0.0625
0.0625 2.4625001 0.087499999
0.1125 2.4124999 0.0625
0.1125 2.4124999 0.087499999
0.1375 2.4124999 0.087499999
0.1125 2.4375 0.087499999
0.1375 2.4375 0.087499999
0.16249999 2.4124999 0.0625
0.1875 2.4124999 0.0625
0.16249999 2.4375 0.0625
0.1875 2.4375 0.087499999
0.16249999 2.4875 0.0625
0.037500001 2.4124999 0.1125
0.037500001 2.4124999 0.1375
0.0625 2.4124999 0.1125
0.087499999 2.4124999 0.1125
0.0625 2.4375 0.1125
0.0625 2.4124999 0.1375
0.087499999 2.4124999 0.1375
0.0625 2.4375 0.1375
0.087499999 2.4375 0.1375
0.0125 2.4625001 0.1125
0.037500001 2.4625001 0.1125
0.0125 2.4875 0.1125
0.0625 2.4625001 0.1125
0.0625 2.4625001 0.1375
0.0125 2.4124999 0.16249999
0.037500001 2.4124999 0.16249999
0.037500001 2.4375 0.16249999
0.0125 2.4124999 0.1875
0.037500001 2.4124999 0.1875
0.0125 2.4375 0.1875
0.037500001 2.4375 0.1875
0.0625 2.4124999 0.16249999
0.0625 2.4375 0.16249999
0.087499999 2.4375 0.16249999
0.0625 2.4124999 0.1875
0.087499999 2.4124999 0.1875
0.0625 2.4375 0.1875
0.087499999 2.4375 0.1875
0.087499999 2.4625001 0.1875
0.1125 2.4124999 0.1125
0.1125 2.4375 0.1125
0.1375 2.4375 0.1125
0.1875 2.4124999 0.1125
0.16249999 2.4375 0.1125
0.16249999 2.4124999 0.1375
0.1875 2.4375 0.1375
0.1125 2.4625001 0.1125
0.1375 2.4625001 0.1125
0.1875 2.4375 0.16249999
0.1125 2.4625001 0.16249999
0.1375 2.4625001 0.16249999
0.2375 2.4124999 0.087499999
0.26249999 2.4124999 0.087499999
0.28749999 2.4124999 0.087499999
0.26249999 2.4375 0.087499999
0.3125 2.4124999 0.087499999
0.3125 2.4375 0.087499999
0.33750001 2.4375 0.087499999
0.36250001 2.4625001 0.0625
0.38749999 2.4875 0.0625
0.38749999 2.4875 0.087499999
0.36250001 2.5125 0.0625
0.36250001 2.5374999 0.0625
0.36250001 2.5125 0.087499999
0.38749999 2.5125 0.087499999
0.36250001 2.5374999 0.087499999
0.38749999 2.5374999 0.087499999
0.38749999 2.5625 0.0625
0.38749999 2.5875001 0.0625
0.38749999 2.5625 0.087499999
0.21250001 2.4124999 0.1375
0.2375 2.4124999 0.1375
0.26249999 2.4124999 0.1125
0.28749999 2.4124999 0.1125
0.28749999 2.4375 0.1125
0.26249999 2.4124999 0.1375
0.28749999 2.4124999 0.1375
0.28749999 2.4625001 0.1125
0.28749999 2.4625001 0.1375
0.21250001 2.4124999 0.16249999
0.2375 2.4124999 0.16249999
0.21250001 2.4375 0.16249999
0.2375 2.4124999 0.1875
0.26249999 2.4124999 0.16249999
0.26249999 2.4375 0.16249999
0.26249999 2.4124999 0.1875
0.26249999 2.4875 0.1875
0.3125 2.4625001 0.1875
0.037500001 2.7625 0.0625
0.037500001 2.7874999 0.0625
0.16249999 2.7874999 0.0625
0.2375 2.7874999 0.0625
0.3125 2.7874999 0.0625
0.025 2.425 0.22499999
0.075000003 2.425 0.22499999
0.0125 2.4625001 0.21250001
0.037500001 2.4625001 0.2375
0.087499999 2.4625001 0.21250001
0.0125 2.4124999 0.26249999
0.037500001 2.4124999 0.26249999
0.0125 2.4375 0.26249999
0.037500001 2.4375 0.26249999
0.037500001 2.4124999 0.28749999
0.037500001 2.4375 0.28749999
0.0625 2.4124999 0.26249999
0.087499999 2.4124999 0.26249999
0.0625 2.4375 0.26249999
0.087499999 2.4375 0.26249999
0.0625 2.4124999 0.28749999
0.0125 2.4625001 0.26249999
0.037500001 2.4625001 0.26249999
0.0125 2.4875 0.26249999
0.0125 2.4625001 0.28749999
0.0625 2.4625001 0.26249999
0.087499999 2.4625001 0.26249999
0.0625 2.4875 0.26249999
0.1125 2.4124999 0.2375
0.1375 2.4124999 0.2375
0.1125 2.4375 0.2375
0.1125 2.4124999 0.26249999
0.1375 2.4124999 0.26249999
0.1125 2.4375 0.26249999
0.1875 2.4124999 0.26249999
0.1875 2.4375 0.26249999
0.16249999 2.4375 0.28749999
0.1875 2.4375 0.28749999
0.1375 2.4625001 0.28749999
0.1125 2.4875 0.28749999
0.16249999 2.4625001 0.28749999
0.087499999 2.5125 0.28749999
0.0125 2.4124999 0.3125
0.037500001 2.4124999 0.3125
0.0125 2.4375 0.3125
0.0125 2.4124999 0.33750001
0.037500001 2.4124999 0.33750001
0.0125 2.4375 0.33750001
0.0625 2.4124999 0.3125
0.0125 2.4625001 0.3125
0.0125 2.4625001 0.33750001
0.025 2.425 0.375
0.0625 2.4124999 0.38749999
0.0125 2.4625001 0.36250001
0.037500001 2.4875 0.36250001
0.0125 2.4625001 0.38749999
0.0625 2.4625001 0.38749999
0.1875 2.4375 0.3125
0.1875 2.4375 0.33750001
0.1375 2.4625001 0.3125
0.1375 2.4875 0.3125
0.1375 2.4875 0.33750001
0.16249999 2.4625001 0.3125
0.1875 2.4625001 0.3125
0.16249999 2.4875 0.3125
0.1875 2.4625001 0.33750001
0.16249999 2.4875 0.33750001
0.1875 2.4625001 0.36250001
0.1125 2.5125 0.3125
0.1375 2.5125 0.3125
0.1375 2.5125 0.33750001
0.1125 2.5374999 0.33750001
0.21250001 2.4124999 0.21250001
0.2375 2.4124999 0.21250001
0.21250001 2.4124999 0.2375
0.2375 2.4124999 0.2375
0.2375 2.4375 0.2375
0.26249999 2.4375 0.21250001
0.26249999 2.4124999 0.2375
0.28749999 2.4124999 0.2375
0.26249999 2.4375 0.2375
0.28749999 2.4375 0.2375
0.26249999 2.4625001 0.21250001
0.28749999 2.4625001 0.21250001
0.26249999 2.4625001 0.2375
0.28749999 2.4625001 0.2375
0.26249999 2.4875 0.2375
0.21250001 2.4124999 0.26249999
0.2375 2.4124999 0.26249999
0.2375 2.4375 0.26249999
0.21250001 2.4124999 0.28749999
0.2375 2.4124999 0.28749999
0.2375 2.4375 0.28749999
0.27500001 2.425 0.27500001
0.2375 2.4625001 0.26249999
0.2375 2.4625001 0.28749999
0.26249999 2.4625001 0.26249999
0.28749999 2.4625001 0.26249999
0.26249999 2.4875 0.26249999
0.26249999 2.4625001 0.28749999
0.28749999 2.4625001 0.28749999
0.26249999 2.4875 0.28749999
0.3125 2.4375 0.2375
0.3125 2.4375 0.26249999
0.2375 2.5125 0.2375
0.26249999 2.5125 0.28749999
0.21250001 2.4124999 0.3125
0.2375 2.4124999 0.3125
0.21250001 2.4375 0.3125
0.2375 2.4375 0.3125
0.2375 2.4124999 0.33750001
0.21250001 2.4375 0.33750001
0.2375 2.4375 0.33750001
0.26249999 2.4124999 0.3125
0.26249999 2.4375 0.3125
0.26249999 2.4124999 0.33750001
0.26249999 2.4375 0.33750001
0.2375 2.4625001 0.3125
0.2375 2.4875 0.3125
0.21250001 2.4625001 0.33750001
0.2375 2.4625001 0.33750001
0.26249999 2.4625001 0.3125
0.28749999 2.4625001 0.3125
0.26249999 2.4875 0.3125
0.26249999 2.4625001 0.33750001
0.28749999 2.4625001 0.33750001
0.26249999 2.4875 0.33750001
0.21250001 2.4375 0.36250001
0.2375 2.4375 0.38749999
0.26249999 2.4375 0.36250001
0.26249999 2.4375 0.38749999
0.28749999 2.4375 0.38749999
0.21250001 2.4625001 0.36250001
0.2375 2.4625001 0.36250001
0.2375 2.4875 0.36250001
0.2375 2.4625001 0.38749999
0.26249999 2.4625001 0.36250001
0.28749999 2.4625001 0.36250001
0.26249999 2.4875 0.36250001
0.28749999 2.4875 0.36250001
0.26249999 2.4625001 0.38749999
0.28749999 2.4625001 0.38749999
0.26249999 2.4875 0.38749999
0.3125 2.4625001 0.3125
0.3125 2.4625001 0.33750001
0.2375 2.5125 0.3125
0.2375 2.5125 0.33750001
0.2375 2.5125 0.36250001
0.2375 2.5125 0.38749999
0.41249999 2.4875 0.0625
0.41249999 2.5125 0.0625
0.41249999 2.5374999 0.0625
0.4375 2.5374999 0.0625
0.41249999 2.5125 0.087499999
0.4375 2.5125 0.087499999
0.41249999 2.5374999 0.087499999
0.4375 2.5374999 0.087499999
0.4375 2.5625 0.0625
0.41249999 2.5875001 0.0625
0.4375 2.5875001 0.0625
0.41249999 2.5625 0.087499999
0.4375 2.5625 0.087499999
0.41249999 2.5875001 0.087499999
0.4375 2.5875001 0.087499999
0.46250001 2.5625 0.0625
0.78750002 2.4124999 0.0625
0.78750002 2.4375 0.0625
0.76249999 2.4375 0.087499999
0.78750002 2.4375 0.087499999
0.71249998 2.4875 0.087499999
0.73750001 2.4875 0.087499999
0.63749999 2.5125 0.087499999
0.66250002 2.5125 0.087499999
0.6875 2.5125 0.087499999
0.66250002 2.5374999 0.087499999
0.66250002 2.5625 0.087499999
0.6875 2.5625 0.087499999
0.71249998 2.5125 0.087499999
0.6875 2.4875 0.16249999
0.73750001 2.4375 0.1125
0.76249999 2.4124999 0.1125
0.78750002 2.4124999 0.1125
0.76249999 2.4375 0.1125
0.76249999 2.4124999 0.1375
0.73750001 2.4625001 0.1125
0.71249998 2.4875 0.1125
0.73750001 2.4875 0.1125
